VERSION .7
FIELDS x y z label object
SIZE 4 4 4 4 4
TYPE F F F I I
COUNT 1 1 1 1 1
WIDTH 708
HEIGHT 1
POINTS 708
VIEWPOINT 0 0 0 1 0 0 0
DATA ascii
-0.12615787982940674 0.001867230050265789 0.3606208264827728 6 -1
-0.15366356074810028 -0.0058870743960142136 0.3762546181678772 12 -1
-0.13171076774597168 0.006835325621068478 0.3414130210876465 17 -1
-0.1774890124797821 0.010955709964036942 0.3247434198856354 19 -1
-0.14547452330589294 -0.005686256103217602 0.36937981843948364 10 -1
-0.11994842439889908 -0.019889935851097107 0.2673066258430481 3 -1
-0.1915372908115387 0.0005646663485094905 0.39932316541671753 23 -1
-0.14569996297359467 0.003876195289194584 0.3805854618549347 10 -1
-0.14499998092651367 0.003102730493992567 0.3353208601474762 17 -1
-0.10874728858470917 0.005811583250761032 0.36074790358543396 6 -1
-0.13424035906791687 -0.005648625548928976 0.3967636823654175 10 -1
-0.133503258228302 -0.006203880533576012 0.41697606444358826 7 -1
-0.1651020646095276 0.006704237312078476 0.40618181228637695 12 -1
-0.13700394332408905 0.00048688476090319455 0.339133620262146 17 -1
-0.11222393065690994 -0.004115523770451546 0.42257562279701233 4 -1
-0.19250619411468506 -0.00046189245767891407 0.3175126016139984 19 -1
-0.17637553811073303 0.0015745507553219795 0.3128516972064972 19 -1
-0.12724077701568604 -0.008553807623684406 0.28956252336502075 26 -1
-0.18616929650306702 0.010418117046356201 0.25632983446121216 26 -1
-0.15521396696567535 0.0038060778751969337 0.33611860871315 16 -1
-0.1525244265794754 -0.002837111707776785 0.39291393756866455 12 -1
-0.11940453201532364 -0.006439399905502796 0.33521798253059387 6 -1
-0.1162111759185791 0.005097267217934132 0.41569983959198 4 -1
-0.09158702194690704 -0.0029800045304000378 0.27564355731010437 3 -1
-0.11404538154602051 -0.003786225337535143 0.36647751927375793 5 -1
-0.1430317759513855 -0.004555144812911749 0.4266042411327362 7 -1
-0.1306980699300766 0.0034627809654921293 0.3926403522491455 10 -1
-0.17032721638679504 0.003234486561268568 0.3466871976852417 16 -1
-0.12417957931756973 0.00523442542180419 0.4037463366985321 5 -1
-0.1819039285182953 -0.002600080566480756 0.37140440940856934 15 -1
-0.07159147411584854 -0.00104522833134979 0.31909504532814026 2 -1
-0.18430379033088684 0.005744033493101597 0.39424261450767517 15 -1
-0.1083306223154068 -0.002783310366794467 0.36604201793670654 5 -1
-0.12299999594688416 -0.001623485004529357 0.32718122005462646 6 -1
-0.1789720356464386 -0.0032977168448269367 0.32999756932258606 19 -1
-0.10867281258106232 0.003571693552657962 0.3862209618091583 5 -1
-0.12312333285808563 -0.007888898253440857 0.2434074431657791 26 -1
-0.1888083517551422 0.01074747834354639 0.2623010575771332 26 -1
-0.15791034698486328 -0.011002227663993835 0.3134983479976654 26 -1
-0.12068735808134079 -0.002113768830895424 0.3384997248649597 6 -1
-0.13194645941257477 0.003956995904445648 0.2239772230386734 26 -1
-0.1185922622680664 -0.004003005102276802 0.3198242783546448 6 -1
-0.175996333360672 -0.0025617226492613554 0.36326467990875244 15 -1
-0.1868007779121399 0.0024059987626969814 0.23487083613872528 26 -1
-0.1889999806880951 0.0000441533193225041 0.319286972284317 19 -1
-0.1322997510433197 0.0016846067737787962 0.22412686049938202 26 -1
-0.18530285358428955 -0.010579664260149002 0.23952332139015198 26 -1
-0.18544992804527283 0.00740436278283596 0.26525962352752686 26 -1
-0.16681522130966187 0.006867248099297285 0.3830093741416931 12 -1
-0.17553679645061493 0.0031322622671723366 0.40757429599761963 23 -1
-0.17751339077949524 0.006949109956622124 0.3270651698112488 19 -1
-0.14736680686473846 0.0018271422013640404 0.39476874470710754 10 -1
-0.09482517838478088 -0.01725034974515438 0.2924855053424835 2 -1
-0.12999969720840454 0.000434641056926921 0.3193027377128601 26 -1
-0.1422337144613266 0.006295090541243553 0.4053735136985779 10 -1
-0.1530306041240692 -0.0041524143889546394 0.3795028328895569 12 -1
-0.12267875671386719 -0.01033115666359663 0.3029770255088806 26 -1
-0.16699999570846558 -0.00354180671274662 0.33265769481658936 16 -1
-0.18852205574512482 0.0006126841763034463 0.39667344093322754 15 -1
-0.18100395798683167 0.001644517993554473 0.326490193605423 19 -1
-0.18750429153442383 -0.006712667178362608 0.4042738378047943 23 -1
-0.16801823675632477 0.0037203975953161716 0.32148775458335876 26 -1
-0.15337695181369781 0.006451408378779888 0.34462469816207886 16 -1
-0.18301834166049957 -0.01000300981104374 0.3123047351837158 19 -1
-0.15900395810604095 0.0019128421554341912 0.33467185497283936 16 -1
-0.1886131912469864 0.003423503367230296 0.39582690596580505 15 -1
-0.1549963653087616 0.00272555579431355 0.3294849991798401 16 -1
-0.15984638035297394 -0.009441155940294266 0.35016733407974243 16 -1
-0.1882549226284027 0.004909420385956764 0.4155493676662445 23 -1
-0.1267240345478058 -0.002851647324860096 0.26102760434150696 3 -1
-0.11993926018476486 0.007999110035598278 0.3616858720779419 6 -1
-0.1688876450061798 0.004754029214382172 0.3881028890609741 12 -1
-0.1699996441602707 0.005593056324869394 0.310794860124588 26 -1
-0.09014086425304413 -0.01749526709318161 0.28244903683662415 2 -1
-0.1546444594860077 -0.007540921680629253 0.23399953544139862 26 -1
-0.11564445495605469 0.007999110035598278 0.3437390923500061 6 -1
-0.14140452444553375 0.0017441987292841077 0.341777503490448 17 -1
-0.13300000131130219 -0.000755424378439784 0.3370087444782257 17 -1
-0.13476207852363586 0.007910866290330887 0.37724024057388306 10 -1
-0.16143956780433655 0.004010804463177919 0.2804594039916992 24 -1
-0.18534213304519653 -0.004257642664015293 0.4162316918373108 23 -1
-0.15276387333869934 0.009961890056729317 0.31820493936538696 26 -1
-0.1428770273923874 0.007581147365272045 0.3878467381000519 10 -1
-0.1476949155330658 -0.008181337267160416 0.2309344857931137 26 -1
-0.1889999955892563 -0.0049116527661681175 0.3163321614265442 19 -1
-0.15599876642227173 0.0031722448766231537 0.3210008144378662 26 -1
-0.12133602797985077 0.011000159196555614 0.3057880401611328 26 -1
-0.19112658500671387 -0.005167078692466021 0.3662772476673126 15 -1
-0.17518268525600433 0.006283293943852186 0.35349059104919434 19 -1
-0.10007143020629883 -0.016906075179576874 0.26997125148773193 3 -1
-0.1279943287372589 -0.00782171543687582 0.2629382610321045 26 -1
-0.08315159380435944 -0.0015419286210089922 0.2841213047504425 2 -1
-0.09472241997718811 -0.018507450819015503 0.28852367401123047 2 -1
-0.10950654000043869 -0.016368897631764412 0.24754221737384796 26 -1
-0.15399634838104248 -0.0016486416570842266 0.36946743726730347 12 -1
-0.11064369231462479 0.010966099798679352 0.3167080879211426 26 -1
-0.14698246121406555 0.005221222527325153 0.3804068863391876 10 -1
-0.12396066635847092 0.004278363659977913 0.41527286171913147 4 -1
-0.16778281331062317 0.004816656466573477 0.37376725673675537 12 -1
-0.19202545285224915 -0.002093750052154064 0.2796124219894409 24 -1
-0.18520013988018036 -0.00870601274073124 0.22868284583091736 26 -1
-0.19290679693222046 0.0013091090368106961 0.3364059329032898 19 -1
-0.11788616329431534 0.010997844859957695 0.26770564913749695 3 -1
-0.1622561812400818 0.011000008322298527 0.2535158395767212 26 -1
-0.12549853324890137 -0.002379483077675104 0.3843955099582672 5 -1
-0.09912323206663132 -0.017834287136793137 0.28500834107398987 3 -1
-0.06482863426208496 -0.012647910974919796 0.3276996612548828 1 -1
-0.1769961714744568 0.001630931394174695 0.3241775631904602 19 -1
-0.11399975419044495 -0.004776650108397007 0.234521746635437 26 -1
-0.1549963653087616 0.004971539601683617 0.3308100700378418 16 -1
-0.12300001084804535 0.002471780404448509 0.3243600130081177 26 -1
-0.1378040313720703 -0.011000161990523338 0.291679322719574 26 -1
-0.16080933809280396 0.00470825657248497 0.2690427601337433 24 -1
-0.1253831386566162 -0.015041676349937916 0.24134431779384613 26 -1
-0.09290158748626709 -0.0009186877869069576 0.29677578806877136 2 -1
-0.10982894897460938 0.004800603725016117 0.22452257573604584 26 -1
-0.17321130633354187 0.0019204809796065092 0.3258121907711029 0 -1
-0.17399998009204865 -0.002270784694701433 0.3912518620491028 15 -1
-0.11083155870437622 -0.0005125168245285749 0.22301894426345825 26 -1
-0.17410488426685333 0.0013651724439114332 0.36835813522338867 15 -1
-0.12725728750228882 -0.01049881987273693 0.29904237389564514 26 -1
-0.10883212834596634 0.0014456608332693577 0.2757870852947235 3 -1
-0.1604728251695633 -0.008939811028540134 0.27570027112960815 24 -1
-0.1257656216621399 -0.0018826612504199147 0.3775210976600647 5 -1
-0.11899911612272263 0.0008593447273597121 0.3366490304470062 6 -1
-0.16848963499069214 -0.006582196336239576 0.35060515999794006 16 -1
-0.15804941952228546 0.008357017301023006 0.3231543302536011 0 -1
-0.11688867211341858 -0.0078077856451272964 0.37168359756469727 5 -1
-0.10570933669805527 -0.018557121977210045 0.275162011384964 3 -1
-0.18924258649349213 -0.00633006077259779 0.35596030950546265 19 -1
-0.14707563817501068 0.0000037614061056956416 0.23294684290885925 26 -1
-0.11619776487350464 0.007914269343018532 0.37635213136672974 5 -1
-0.1549963653087616 -0.0016716328682377934 0.3224204480648041 16 -1
-0.16788539290428162 0.006340160500258207 0.3802735209465027 12 -1
-0.16535909473896027 -0.011000128462910652 0.30936291813850403 26 -1
-0.11727306246757507 -0.015377582982182503 0.2750978469848633 3 -1
-0.16834305226802826 0.010675827972590923 0.29438546299934387 26 -1
-0.11818386614322662 0.0017312968848273158 0.4051659405231476 5 -1
-0.12954452633857727 -0.0031951142009347677 0.3370465636253357 17 -1
-0.13973069190979004 0.004065639805048704 0.42936697602272034 7 -1
-0.10838429629802704 -0.0039026904851198196 0.3999007046222687 5 -1
-0.13199329376220703 -0.007069319020956755 0.3378864526748657 17 -1
-0.16779300570487976 0.010819253511726856 0.3046194016933441 26 -1
-0.13029107451438904 0.0026613243389874697 0.3701416254043579 17 -1
-0.15474994480609894 0.010982961393892765 0.3208582401275635 26 -1
-0.12383226305246353 -0.01620888151228428 0.24413138628005981 26 -1
-0.060752566903829575 -0.017969835549592972 0.3128025531768799 1 -1
-0.1080000102519989 -0.0025246660225093365 0.373073548078537 5 -1
-0.11415794491767883 0.002919889986515045 0.2703445255756378 3 -1
-0.1754719465970993 0.01100026722997427 0.25476914644241333 26 -1
-0.15917685627937317 0.00881801825016737 0.2773398756980896 24 -1
-0.1337062567472458 0.00791247934103012 0.37245431542396545 17 -1
-0.16092383861541748 0.011492227204144001 0.33196184039115906 16 -1
-0.18336156010627747 -0.008636325597763062 0.2750168442726135 24 -1
-0.1813095211982727 -0.0069845737889409065 0.36895105242729187 15 -1
-0.12117595225572586 0.006948534864932299 0.336249440908432 6 -1
-0.18716290593147278 0.0056966678239405155 0.3937474489212036 15 -1
-0.1816387176513672 -0.009470215067267418 0.32131099700927734 19 -1
-0.18100520968437195 -0.005974607076495886 0.3146669268608093 19 -1
-0.12517988681793213 -0.002394340932369232 0.3680326044559479 5 -1
-0.1329990029335022 0.0007940674549899995 0.33022069931030273 17 -1
-0.11255208402872086 -0.004869667813181877 0.36712801456451416 5 -1
-0.16220515966415405 -0.003173709847033024 0.2807217538356781 24 -1
-0.1585954874753952 -0.0027175573632121086 0.33752915263175964 16 -1
-0.19257745146751404 -0.002829462056979537 0.3394528031349182 19 -1
-0.13114440441131592 -0.0045482562854886055 0.4065314531326294 7 -1
-0.10999634861946106 0.00010197309165960178 0.37491756677627563 5 -1
-0.11189478635787964 -0.008608339354395866 0.3851773142814636 5 -1
-0.19205452501773834 -0.0009333771886304021 0.35388004779815674 19 -1
-0.13009557127952576 -0.003468090668320656 0.36680734157562256 17 -1
-0.1140102744102478 -0.008301779627799988 0.22670313715934753 26 -1
-0.16996100544929504 0.008348884992301464 0.31237831711769104 26 -1
-0.17812424898147583 0.011000755243003368 0.25164052844047546 26 -1
-0.16124963760375977 0.011000281199812889 0.2733956277370453 24 -1
-0.15521366894245148 0.006729926913976669 0.32269975543022156 0 -1
-0.17976662516593933 -0.0018502668244764209 0.3966435194015503 15 -1
-0.17973381280899048 0.010999293997883797 0.293961763381958 24 -1
-0.13514067232608795 -0.016044463962316513 0.2630794048309326 26 -1
-0.12510590255260468 0.005502108950167894 0.22450295090675354 26 -1
-0.1672564148902893 0.007547881454229355 0.3496891260147095 16 -1
-0.19002509117126465 -0.0044301883317530155 0.26547643542289734 26 -1
-0.07948960363864899 -0.003908736631274223 0.3104732036590576 2 -1
-0.15570005774497986 -0.010999670252203941 0.30264437198638916 26 -1
-0.10205540806055069 0.0013963012024760246 0.27391257882118225 3 -1
-0.12257873266935349 0.006688340567052364 0.32418060302734375 26 -1
-0.09114246070384979 -0.00662954431027174 0.2743648886680603 3 -1
-0.16623187065124512 -0.0042472523637115955 0.338052898645401 16 -1
-0.1662265509366989 -0.01100120134651661 0.27148184180259705 24 -1
-0.181710883975029 -0.008912980556488037 0.37789562344551086 15 -1
-0.1207200363278389 -0.022241761907935143 0.2547934949398041 0 -1
-0.06603562086820602 -0.01822114735841751 0.31926676630973816 1 -1
-0.1792919635772705 -0.00928253959864378 0.3453921377658844 19 -1
-0.1469527930021286 0.011000242084264755 0.28272777795791626 26 -1
-0.094533272087574 -0.0002523153380025178 0.2762523889541626 3 -1
-0.12359955161809921 0.003684308612719178 0.2279939353466034 26 -1
-0.10986866801977158 0.0031058634631335735 0.41932350397109985 4 -1
-0.18368813395500183 0.011492227204144001 0.3233739137649536 19 -1
-0.17443391680717468 -0.005170635413378477 0.35068821907043457 19 -1
-0.15799659490585327 0.007621875964105129 0.38365626335144043 12 -1
-0.05988602712750435 -0.0024533586110919714 0.3065534830093384 2 -1
-0.13423855602741241 -0.002006737980991602 0.34140586853027344 17 -1
-0.1250266134738922 0.000804762588813901 0.41398000717163086 4 -1
-0.13069507479667664 -0.004767555743455887 0.38928523659706116 10 -1
-0.1648939698934555 0.010901552625000477 0.27787232398986816 24 -1
-0.12691277265548706 -0.0012795765651389956 0.33806222677230835 6 -1
-0.14631226658821106 0.001742480555549264 0.42381614446640015 7 -1
-0.12599962949752808 0.006878268904983997 0.3172945976257324 26 -1
-0.13490231335163116 0.008379872888326645 0.3300490081310272 17 -1
-0.06605878472328186 -0.012341673485934734 0.31226617097854614 1 -1
-0.14365330338478088 0.0054601626470685005 0.38133418560028076 10 -1
-0.171199768781662 0.002392403781414032 0.23004303872585297 26 -1
-0.13300000131130219 0.0036872283089905977 0.33107322454452515 17 -1
-0.13425256311893463 -0.01548171229660511 0.2312043011188507 26 -1
-0.1446678638458252 -0.007211349904537201 0.22602811455726624 26 -1
-0.07219791412353516 0.0008186199702322483 0.3159453868865967 2 -1
-0.14584936201572418 -0.0055465009063482285 0.22377640008926392 26 -1
-0.12019322067499161 0.010999999940395355 0.28973016142845154 26 -1
-0.11675666272640228 -0.004003003239631653 0.31943944096565247 6 -1
-0.12335274368524551 0.007514841388911009 0.3610098361968994 6 -1
-0.053813524544239044 -0.007410051301121712 0.3364114463329315 1 -1
-0.15817192196846008 0.007037273608148098 0.2781713902950287 24 -1
-0.19201397895812988 0.006854884792119265 0.29514479637145996 24 -1
-0.14035312831401825 0.011000211350619793 0.2455204278230667 26 -1
-0.12136466056108475 0.006297279614955187 0.4018142819404602 5 -1
-0.13572558760643005 -0.018960941582918167 0.247711181640625 26 -1
-0.10864432156085968 0.0010338061256334186 0.2770879566669464 3 -1
-0.13237768411636353 -0.000002744336143223336 0.25939276814460754 26 -1
-0.1862010657787323 -0.003907249309122562 0.3285515308380127 19 -1
-0.13441474735736847 -0.0065491460263729095 0.24663375318050385 26 -1
-0.06631540507078171 0.0007397244335152209 0.3145517110824585 2 -1
-0.14977368712425232 3.39999985499162e-7 0.24705998599529266 26 -1
-0.12297262251377106 -0.009088200516998768 0.31977522373199463 26 -1
-0.1371278315782547 -0.0000031985548503143946 0.2583218812942505 26 -1
-0.1154974102973938 0.007204169407486916 0.3940907120704651 5 -1
-0.11100000888109207 0.0007047085673548281 0.3344026803970337 6 -1
-0.12903189659118652 -0.0006168734398670495 0.3449684679508209 17 -1
-0.16566836833953857 -0.007290057372301817 0.4070148468017578 8 -1
-0.16999974846839905 -0.005383949726819992 0.2963527739048004 26 -1
-0.14123943448066711 0.006512854248285294 0.3268356919288635 17 -1
-0.1579229235649109 0.007999110035598278 0.35041141510009766 16 -1
-0.17537085711956024 -0.00040962686762213707 0.31373900175094604 19 -1
-0.14096899330615997 -0.005851773079484701 0.3271730840206146 17 -1
-0.12508533895015717 -0.004506974946707487 0.3770420551300049 5 -1
-0.1902451068162918 -0.0015154611319303513 0.4109904170036316 23 -1
-0.09923958778381348 -0.004916289355605841 0.29101651906967163 3 -1
-0.19109584391117096 0.0017731580883264542 0.25389519333839417 26 -1
-0.17583175003528595 -0.005114765837788582 0.2459985613822937 26 -1
-0.11399980634450912 0.009503401815891266 0.23118047416210175 26 -1
-0.12999999523162842 0.0010709002381190658 0.374185711145401 0 -1
-0.16174381971359253 0.008582160808146 0.2731560170650482 24 -1
-0.16085731983184814 0.011000329628586769 0.29585081338882446 26 -1
-0.12282340228557587 0.010999999940395355 0.2912750244140625 26 -1
-0.112335205078125 -0.006402312312275171 0.378288596868515 5 -1
-0.16033431887626648 0.011269212700426579 0.3351172208786011 16 -1
-0.06519468873739243 -0.0195901058614254 0.31181657314300537 1 -1
-0.1839936077594757 0.006353910081088543 0.32651007175445557 19 -1
-0.1363144814968109 0.007999109104275703 0.3474787473678589 17 -1
-0.12396416068077087 -0.021352333948016167 0.24592916667461395 26 -1
-0.07404186576604843 -0.010240663774311543 0.2909761667251587 2 -1
-0.1388886719942093 0.0008939005201682448 0.36954671144485474 17 -1
-0.12335650622844696 -0.0032554538920521736 0.42023515701293945 4 -1
-0.11724358052015305 -0.009736611507833004 0.32992175221443176 6 -1
-0.18476563692092896 -0.007668673060834408 0.36284303665161133 15 -1
-0.11822652816772461 -0.017271939665079117 0.2395128607749939 26 -1
-0.12357917428016663 0.008304168470203876 0.23455005884170532 26 -1
-0.11522047221660614 0.010997503064572811 0.26906758546829224 3 -1
-0.11614541709423065 -0.009592916816473007 0.2411418855190277 26 -1
-0.11584638059139252 -0.009441155940294266 0.35016733407974243 6 -1
-0.12129756808280945 -0.001058724126778543 0.2744747996330261 26 -1
-0.1607852280139923 0.011000005528330803 0.2551319897174835 26 -1
-0.1479392945766449 -0.008436769247055054 0.31611719727516174 26 -1
-0.17619527876377106 -0.010941678658127785 0.265672892332077 26 -1
-0.12828050553798676 -0.0183540228754282 0.24424168467521667 26 -1
-0.04353969171643257 -0.0016146866837516427 0.3268422484397888 1 -1
-0.17539915442466736 -0.006482208147644997 0.33021843433380127 19 -1
-0.14055538177490234 0.007999110035598278 0.3699931204319 17 -1
-0.1716424971818924 -0.010507189668715 0.2856554687023163 24 -1
-0.1582934558391571 0.0053530591540038586 0.2732629179954529 24 -1
-0.11846493929624557 0.007999109104275703 0.3489215672016144 6 -1
-0.1380024403333664 -0.007078512571752071 0.4163668751716614 7 -1
-0.1646873652935028 -0.002113768830895424 0.3384997248649597 16 -1
-0.11219652742147446 -0.020443715155124664 0.26021286845207214 3 -1
-0.14135286211967468 0.007827096618711948 0.38252976536750793 10 -1
-0.13637645542621613 0.00920816045254469 0.33716800808906555 17 -1
-0.1122385561466217 0.001804414321668446 0.3374759554862976 6 -1
-0.15260609984397888 0.009839767590165138 0.32963186502456665 0 -1
-0.11407355219125748 -0.0031640746165066957 0.2446928322315216 26 -1
-0.14751020073890686 -0.005087174475193024 0.36655178666114807 0 -1
-0.1391116827726364 0.007260134909301996 0.37400758266448975 17 -1
-0.18183432519435883 0.007598494179546833 0.32420042157173157 19 -1
-0.16241468489170074 -0.006480257958173752 0.23400042951107025 26 -1
-0.0940692126750946 -0.0016329302452504635 0.2831820249557495 2 -1
-0.1392221301794052 0.007999110035598278 0.3514827489852905 17 -1
-0.13623996078968048 0.008516072295606136 0.3307604193687439 17 -1
-0.17008201777935028 -0.0041643911972641945 0.3391872048377991 16 -1
-0.19200009107589722 0.00021728688443545252 0.39103519916534424 15 -1
-0.17010508477687836 -0.0029531409963965416 0.36016467213630676 16 -1
-0.12302689999341965 -0.006159857381135225 0.4041430950164795 4 -1
-0.1337003856897354 -0.006503009703010321 0.3233763873577118 26 -1
-0.1630968153476715 -0.008000889793038368 0.3406241834163666 16 -1
-0.1862010657787323 -0.006961588282138109 0.32611027359962463 19 -1
-0.1619747132062912 0.011000199243426323 0.29655933380126953 26 -1
-0.16740907728672028 0.010906890965998173 0.29575997591018677 26 -1
-0.11134035885334015 -0.00808042287826538 0.36141711473464966 0 -1
-0.15007027983665466 0.011000022292137146 0.26950690150260925 26 -1
-0.19200392067432404 -0.004065015818923712 0.30724263191223145 24 -1
-0.16680142283439636 -0.0035596271045506 0.22434180974960327 26 -1
-0.057118386030197144 0.0007031307322904468 0.31621724367141724 1 -1
-0.16877254843711853 0.0023919963277876377 0.4145650565624237 8 -1
-0.13301505148410797 0.006121720187366009 0.3262639045715332 17 -1
-0.08546391874551773 -0.018366875126957893 0.28682053089141846 2 -1
-0.0682423785328865 -0.0018800173420459032 0.30061614513397217 2 -1
-0.16638053953647614 0.002233229810371995 0.2243531197309494 26 -1
-0.11099302023649216 -0.005674782209098339 0.3944000005722046 5 -1
-0.08219101279973984 -0.01113845780491829 0.28202134370803833 2 -1
-0.13461840152740479 0.006283107213675976 0.38009199500083923 10 -1
-0.11024849116802216 -0.010758264921605587 0.308799147605896 26 -1
-0.12906962633132935 -0.001257053343579173 0.2230144888162613 26 -1
-0.16700002551078796 0.007084337994456291 0.3303825259208679 16 -1
-0.17823854088783264 -0.006144734099507332 0.32656702399253845 19 -1
-0.11681151390075684 0.011158104985952377 0.3354776203632355 6 -1
-0.14337791502475739 0.0008319251937791705 0.3842537999153137 10 -1
-0.13300000131130219 0.0077057224698364735 0.33221182227134705 17 -1
-0.08091850578784943 0.0010968251153826714 0.2921079993247986 2 -1
-0.14451999962329865 0.006353899836540222 0.37813353538513184 10 -1
-0.13571305572986603 0.002450261265039444 0.23403137922286987 26 -1
-0.16750991344451904 -0.010995638556778431 0.24469661712646484 26 -1
-0.09087026119232178 0.002146035199984908 0.2908104658126831 2 -1
-0.12359285354614258 -0.00026772008277475834 0.4241153299808502 4 -1
-0.09762000292539597 -0.002474366221576929 0.29272589087486267 2 -1
-0.18901798129081726 0.002398274140432477 0.2512916922569275 26 -1
-0.0841253250837326 -0.012298746965825558 0.29916268587112427 2 -1
-0.13395527005195618 0.0068000913597643375 0.4040163457393646 10 -1
-0.16516277194023132 0.007999110035598278 0.3589584231376648 16 -1
-0.13781560957431793 -0.006346714682877064 0.38388964533805847 10 -1
-0.16898277401924133 0.0016724278684705496 0.403123140335083 12 -1
-0.1336495578289032 -0.000002814414301610668 0.2587195932865143 26 -1
-0.1166812926530838 0.007999110035598278 0.35984134674072266 6 -1
-0.18058881163597107 0.011496989987790585 0.3219371736049652 19 -1
-0.15273873507976532 0.0003299250965937972 0.4034735858440399 12 -1
-0.1753910928964615 0.001976799452677369 0.4083159565925598 23 -1
-0.08363200724124908 0.0014903215924277902 0.29785823822021484 2 -1
-0.16024285554885864 -0.008567878045141697 0.2793436646461487 24 -1
-0.13300000131130219 -0.0014922930859029293 0.3392622768878937 17 -1
-0.15404914319515228 -0.007183456793427467 0.353003591299057 16 -1
-0.1747020035982132 0.0037870293017476797 0.37764182686805725 15 -1
-0.12528344988822937 0.011000148952007294 0.2997845411300659 26 -1
-0.17437744140625 0.0017329456750303507 0.3973406255245209 15 -1
-0.17752185463905334 0.006880760192871094 0.3780043125152588 15 -1
-0.17699633538722992 0.0003839253622572869 0.3122100234031677 19 -1
-0.18505215644836426 0.01099794264882803 0.3005302846431732 24 -1
-0.1370219886302948 0.01137688010931015 0.338470995426178 17 -1
-0.15844285488128662 -0.010992182418704033 0.24425384402275085 26 -1
-0.13302384316921234 -0.000001282500193156011 0.26476791501045227 26 -1
-0.08446508646011353 -0.0016340409638360143 0.2830832898616791 2 -1
-0.1874881237745285 0.009046072140336037 0.2590865194797516 26 -1
-0.12257873266935349 0.008173963986337185 0.3278949558734894 26 -1
-0.06891316175460815 -0.004670456517487764 0.29824256896972656 2 -1
-0.171199768781662 -0.0025312115903943777 0.2320650815963745 26 -1
-0.14312461018562317 0.011000329628586769 0.29685133695602417 26 -1
-0.17092791199684143 -0.0011749565601348877 0.3409684896469116 16 -1
-0.18079932034015656 -0.007347551174461842 0.23897133767604828 26 -1
-0.07016770541667938 -0.0008537341491319239 0.30000337958335876 2 -1
-0.14020982384681702 -0.0164051316678524 0.249238982796669 26 -1
-0.12549808621406555 -0.003097699023783207 0.385990172624588 5 -1
-0.16299913823604584 0.0016109261196106672 0.3365395963191986 16 -1
-0.1404784917831421 -0.009866391308605671 0.3262765407562256 17 -1
-0.12476924806833267 0.006107239052653313 0.36826378107070923 6 -1
-0.11344554275274277 -0.016992393881082535 0.2757297456264496 3 -1
-0.13117411732673645 -0.005921049974858761 0.39383450150489807 10 -1
-0.1737326979637146 -0.010705373249948025 0.2721370756626129 26 -1
-0.11290991306304932 0.003621147945523262 0.22362969815731049 26 -1
-0.1235259547829628 -0.010750159621238708 0.23698779940605164 26 -1
-0.1322997510433197 0.0031178572680801153 0.22487007081508636 26 -1
-0.13614043593406677 0.011312615126371384 0.32623517513275146 26 -1
-0.16068129241466522 0.007999110035598278 0.35984134674072266 16 -1
-0.14734478294849396 0.011000127531588078 0.27876773476600647 26 -1
-0.1409994512796402 -0.007848712615668774 0.32977724075317383 17 -1
-0.1409403681755066 0.003042032942175865 0.3377270996570587 17 -1
-0.08842349797487259 -0.003908475395292044 0.27808958292007446 3 -1
-0.08523641526699066 -0.00942721962928772 0.2790364921092987 3 -1
-0.12682121992111206 0.00008054701902437955 0.3278586268424988 0 -1
-0.1554853469133377 -0.004975195974111557 0.4035855233669281 8 -1
-0.11651283502578735 -4.321875621826621e-7 0.25943583250045776 3 -1
-0.12077569216489792 0.011000126600265503 0.30414319038391113 26 -1
-0.14836260676383972 -0.003263863269239664 0.3576640486717224 0 -1
-0.06140122190117836 -0.011422784999012947 0.3051501214504242 2 -1
-0.12399919331073761 -0.01852501928806305 0.2487122118473053 26 -1
-0.11158786714076996 0.010999256744980812 0.3080683648586273 26 -1
-0.10715966671705246 -0.0009615824092179537 0.3536640405654907 6 -1
-0.19013367593288422 0.006235906854271889 0.3675004541873932 15 -1
-0.1859549582004547 0.003648039884865284 0.3959777057170868 15 -1
-0.18447890877723694 0.006905389949679375 0.3937295377254486 15 -1
-0.11217016726732254 -0.006691883318126202 0.3974703550338745 5 -1
-0.16424059867858887 -0.006619472522288561 0.4151369333267212 8 -1
-0.1325661838054657 -0.010943946428596973 0.31909477710723877 26 -1
-0.175996333360672 0.00004068945781909861 0.3680926263332367 15 -1
-0.11792046576738358 0.00039899430703371763 0.3384997248649597 6 -1
-0.16727927327156067 -0.005477118771523237 0.28454843163490295 24 -1
-0.16340339183807373 0.011000236496329308 0.2970161437988281 26 -1
-0.15906842052936554 -0.008000889793038368 0.3422487676143646 16 -1
-0.17388883233070374 -0.0038185464218258858 0.3193586766719818 19 -1
-0.19045595824718475 -0.006811738479882479 0.37450841069221497 15 -1
-0.16780103743076324 -0.0017906229477375746 0.37780696153640747 12 -1
-0.049756165593862534 -0.008336635306477547 0.317374587059021 1 -1
-0.17937448620796204 -0.006179775111377239 0.4087066054344177 23 -1
-0.12999999523162842 -0.0011935362126678228 0.3781675100326538 10 -1
-0.10942727327346802 0.002700310666114092 0.41561388969421387 4 -1
-0.12359975278377533 -0.0009957539150491357 0.23066991567611694 26 -1
-0.12616878747940063 0.010806336998939514 0.2319898158311844 26 -1
-0.15336495637893677 -0.0037106359377503395 0.32108691334724426 26 -1
-0.168268620967865 -0.007104343734681606 0.3855571746826172 12 -1
-0.12326639890670776 -0.010999670252203941 0.3069879412651062 26 -1
-0.18169933557510376 -0.005717816762626171 0.35941022634506226 15 -1
-0.15441341698169708 -0.005236221943050623 0.3202435076236725 16 -1
-0.08451899886131287 -0.0024912708904594183 0.30473792552948 2 -1
-0.14219626784324646 -0.008000889793038368 0.3439524173736572 17 -1
-0.11106391251087189 -0.008031448349356651 0.35615840554237366 6 -1
-0.1336507350206375 -0.008415170013904572 0.3569028377532959 17 -1
-0.18499800562858582 -0.001558392308652401 0.3261709213256836 19 -1
-0.09661703556776047 -0.0014554901281371713 0.2932192087173462 2 -1
-0.11600662022829056 0.006042993627488613 0.33529821038246155 6 -1
-0.10954945534467697 0.010610522702336311 0.29884323477745056 26 -1
-0.17505471408367157 0.0048293909057974815 0.37432122230529785 15 -1
-0.18725499510765076 -0.009065153077244759 0.3448559045791626 19 -1
-0.12999966740608215 0.007542666047811508 0.32030609250068665 26 -1
-0.048485640436410904 -0.013246419839560986 0.3379935026168823 1 -1
-0.1814325749874115 0.004013360012322664 0.22378535568714142 26 -1
-0.12138424813747406 0.007024729624390602 0.3342101573944092 6 -1
-0.1551564484834671 -0.00795694999396801 0.3889462947845459 12 -1
-0.12023372203111649 0.0004894970334134996 0.4053862690925598 5 -1
-0.10799974203109741 0.007871206849813461 0.2735559344291687 3 -1
-0.11105230450630188 -0.016095494851469994 0.2501741051673889 0 -1
-0.17406846582889557 -0.0082857059314847 0.3084592819213867 24 -1
-0.11382459849119186 -0.0040771570056676865 0.24918416142463684 26 -1
-0.1237097904086113 0.0055965520441532135 0.3222978711128235 26 -1
-0.10724196583032608 -0.0021013382356613874 0.3429372310638428 6 -1
-0.14349465072155 0.004151736851781607 0.4080047309398651 10 -1
-0.12548086047172546 0.000283148605376482 0.3848592936992645 5 -1
-0.16454926133155823 -0.010999663732945919 0.2516438961029053 26 -1
-0.15282811224460602 0.004171633627265692 0.3845366835594177 12 -1
-0.11088908463716507 -0.014298252761363983 0.2500259280204773 26 -1
-0.11303160339593887 -0.013840453699231148 0.27906280755996704 3 -1
-0.12229534983634949 -0.003654859494417906 0.24412648379802704 26 -1
-0.14810888469219208 -0.0024360253009945154 0.36462080478668213 0 -1
-0.1079997569322586 -0.003944465424865484 0.23615224659442902 26 -1
-0.11072464287281036 0.010969201102852821 0.2431139349937439 26 -1
-0.14770188927650452 -0.006508849561214447 0.2328621745109558 26 -1
-0.17646238207817078 0.006337261758744717 0.3801567256450653 15 -1
-0.11110397428274155 -0.011001437902450562 0.3166937828063965 26 -1
-0.1257326602935791 0.0034884409978985786 0.37522244453430176 5 -1
-0.18345043063163757 0.010994328185915947 0.26405206322669983 26 -1
-0.1889999955892563 0.002147185616195202 0.3189474940299988 19 -1
-0.13353639841079712 0.010999999940395355 0.2849602997303009 26 -1
-0.04511169344186783 -0.0005118746776133776 0.3267807364463806 1 -1
-0.18020351231098175 -0.0050061652436852455 0.32793572545051575 19 -1
-0.19185411930084229 -0.004229347687214613 0.3524770736694336 19 -1
-0.16101884841918945 0.011000048369169235 0.2440660297870636 26 -1
-0.062105968594551086 -0.002833400387316942 0.3293967545032501 1 -1
-0.1898941844701767 0.007172273937612772 0.330938458442688 19 -1
-0.10837917774915695 -0.005098692141473293 0.3550998568534851 6 -1
-0.16692811250686646 -0.00008629932563053444 0.22359806299209595 26 -1
-0.17353194952011108 -0.0016248862957581878 0.2889564037322998 24 -1
-0.11771886795759201 -0.011003587394952774 0.3103901743888855 26 -1
-0.16487975418567657 -0.004175907000899315 0.28286823630332947 24 -1
-0.14023427665233612 -0.005000889766961336 0.33059021830558777 17 -1
-0.12464185804128647 -0.017449120059609413 0.2639468014240265 3 -1
-0.12408274412155151 -0.0016215950017794967 0.40392589569091797 5 -1
-0.19163702428340912 0.0035715666599571705 0.3885129392147064 15 -1
-0.1290707141160965 0.001096419058740139 0.34581220149993896 17 -1
-0.18120263516902924 0.009731126017868519 0.3266032934188843 19 -1
-0.12561163306236267 -0.005068090278655291 0.34181222319602966 6 -1
-0.1390855610370636 -0.008935490623116493 0.39004290103912354 10 -1
-0.09049596637487411 -0.014202390797436237 0.29938679933547974 2 -1
-0.16936948895454407 -0.00768662802875042 0.28573739528656006 24 -1
-0.18878601491451263 -0.007679292932152748 0.317937433719635 19 -1
-0.12780533730983734 -0.00496733607724309 0.26384302973747253 26 -1
-0.16377034783363342 0.007662199437618256 0.3336990475654602 16 -1
-0.17960093915462494 0.006829343736171722 0.39937710762023926 15 -1
-0.16910506784915924 -0.010993840172886848 0.27750182151794434 24 -1
-0.17400996387004852 -0.00678284652531147 0.30428242683410645 24 -1
-0.1889999955892563 0.005551004316657782 0.32262247800827026 19 -1
-0.1681213676929474 0.00696414802223444 0.35754460096359253 16 -1
-0.06197163462638855 0.001957258442416787 0.32029643654823303 1 -1
-0.14164423942565918 -0.013806340284645557 0.25959545373916626 26 -1
-0.08962409198284149 -0.010539361275732517 0.2755095362663269 3 -1
-0.1588839292526245 0.005198715254664421 0.27033326029777527 24 -1
-0.14224056899547577 -0.006619472522288561 0.4191369414329529 7 -1
-0.1210087388753891 0.011496989987790585 0.3278239667415619 26 -1
-0.1580476015806198 0.003918198868632317 0.3210008144378662 26 -1
-0.19065171480178833 0.010487904772162437 0.2930738031864166 24 -1
-0.12980049848556519 -0.0100437356159091 0.31173643469810486 26 -1
-0.07382387667894363 -0.008522642776370049 0.3176710605621338 2 -1
-0.11875472217798233 -0.009501069784164429 0.3598754405975342 6 -1
-0.1546778529882431 -0.006463527679443359 0.3642539381980896 16 -1
-0.05812752991914749 -0.017725979909300804 0.32828110456466675 1 -1
-0.1849822998046875 -0.00909045897424221 0.3137703537940979 19 -1
-0.12398704886436462 -0.006874546874314547 0.39059898257255554 5 -1
-0.17809757590293884 0.0030414285138249397 0.4177675247192383 23 -1
-0.19274887442588806 -0.0021153665147721767 0.32759344577789307 19 -1
-0.14307788014411926 0.011000329628586769 0.31474220752716064 26 -1
-0.13512764871120453 -0.017001166939735413 0.23518255352973938 26 -1
-0.13901741802692413 -0.014609027653932571 0.2563582956790924 26 -1
-0.1759963482618332 0.00016305848839692771 0.36088162660598755 15 -1
-0.1745080053806305 -0.0021084328182041645 0.37411531805992126 15 -1
-0.1891331970691681 0.008217044174671173 0.3172970414161682 19 -1
-0.12563520669937134 -0.007299458142369986 0.22335441410541534 26 -1
-0.11399975419044495 -0.007081430405378342 0.23151284456253052 26 -1
-0.07738731801509857 -0.005217397585511208 0.3131665885448456 2 -1
-0.18945316970348358 -0.010943306609988213 0.27834346890449524 24 -1
-0.06383027881383896 -0.010681104846298695 0.30323082208633423 2 -1
-0.15221798419952393 -0.0011636533308774233 0.32416844367980957 16 -1
-0.16738900542259216 -0.007079007104039192 0.32589733600616455 16 -1
-0.13122403621673584 0.007569764740765095 0.3313148617744446 17 -1
-0.11399975419044495 -0.009252751246094704 0.23031410574913025 26 -1
-0.155191570520401 -0.008127269335091114 0.3567435145378113 16 -1
-0.13700151443481445 0.002551313489675522 0.3397255539894104 17 -1
-0.05973249301314354 -0.009882334619760513 0.3066515028476715 2 -1
-0.12122993916273117 -0.020139465108513832 0.24409908056259155 26 -1
-0.12545020878314972 0.010997466742992401 0.2784230411052704 26 -1
-0.07571469992399216 -0.005159550346434116 0.31509217619895935 2 -1
-0.17609760165214539 -0.0030934016685932875 0.3618059456348419 15 -1
-0.12540581822395325 0.0012991931289434433 0.388836145401001 5 -1
-0.1256982982158661 0.0019850677344948053 0.3221563994884491 26 -1
-0.16881023347377777 0.00400141766294837 0.32400187849998474 16 -1
-0.08428502082824707 -0.009305540472269058 0.30023685097694397 2 -1
-0.13423852622509003 -0.006076587829738855 0.37481173872947693 10 -1
-0.16178718209266663 -0.00626137712970376 0.3645583689212799 16 -1
-0.19118504226207733 0.005708322860300541 0.3394528031349182 19 -1
-0.1690692901611328 -0.004691629204899073 0.2240777164697647 26 -1
-0.13531172275543213 -0.006107922177761793 0.3298076391220093 17 -1
-0.08208951354026794 -0.01216894667595625 0.28254419565200806 2 -1
-0.15726804733276367 0.011000079102814198 0.24891069531440735 26 -1
-0.18113312125205994 -0.010467161424458027 0.26315197348594666 26 -1
-0.1624675989151001 0.004639462102204561 0.3786497116088867 12 -1
-0.15795643627643585 0.00851606484502554 0.3270326554775238 16 -1
-0.13778719305992126 -0.009959039278328419 0.3285524547100067 17 -1
-0.1079997569322586 -0.003876263042911887 0.2458590567111969 26 -1
-0.055209118872880936 -0.006826638709753752 0.3115135729312897 1 -1
-0.19138780236244202 -0.004138965625315905 0.3821353614330292 15 -1
-0.17985324561595917 -0.006635822355747223 0.31064116954803467 19 -1
-0.1419549584388733 -0.007839645259082317 0.3790279030799866 10 -1
-0.1681569218635559 -0.01099434308707714 0.27943626046180725 24 -1
-0.1469138115644455 0.010265236720442772 0.3222907781600952 26 -1
-0.12035149335861206 0.0007584230042994022 0.27088168263435364 3 -1
-0.18499800562858582 0.00044101261300966144 0.32663658261299133 19 -1
-0.12623445689678192 -0.004906092770397663 0.25760164856910706 26 -1
-0.1120895966887474 0.008872976526618004 0.2275516390800476 26 -1
-0.11452095210552216 -0.007182152010500431 0.4051649570465088 4 -1
-0.10799963027238846 0.006166714243590832 0.25363171100616455 3 -1
-0.10831011831760406 -0.00928536057472229 0.31532782316207886 26 -1
-0.12107378989458084 -0.006433572620153427 0.4151899516582489 4 -1
-0.12915441393852234 -0.020110787823796272 0.26044008135795593 26 -1
-0.15586191415786743 -0.010999669320881367 0.29838642477989197 26 -1
-0.16999965906143188 -0.006875719875097275 0.31569477915763855 26 -1
-0.15242010354995728 0.004899997264146805 0.32785865664482117 0 -1
-0.12999999523162842 -0.00039335727342404425 0.37463605403900146 10 -1
-0.16608601808547974 0.007785354740917683 0.22856760025024414 26 -1
-0.10142096877098083 -0.0183690395206213 0.27364659309387207 3 -1
-0.16946493089199066 -0.0036314944736659527 0.324959933757782 0 -1
-0.1526554971933365 -0.0036987625062465668 0.40561094880104065 8 -1
-0.18699494004249573 -0.0004364968044683337 0.31164923310279846 24 -1
-0.1693091243505478 0.0034627809654921293 0.3886403441429138 12 -1
-0.11600001156330109 -0.00800000037997961 0.26270169019699097 3 -1
-0.1767779290676117 0.005053887143731117 0.40892165899276733 23 -1
-0.12993063032627106 0.004969331435859203 0.31357628107070923 26 -1
-0.10832187533378601 0.0025748854968696833 0.369753897190094 5 -1
-0.15302447974681854 0.004541601054370403 0.400188148021698 12 -1
-0.1920185536146164 -0.003719555214047432 0.3004002273082733 24 -1
-0.11466348171234131 0.008499110117554665 0.331331729888916 6 -1
-0.1079997569322586 0.002630383474752307 0.2467295527458191 26 -1
-0.18730750679969788 -0.008376740850508213 0.26076948642730713 26 -1
-0.1426934152841568 0.003445280250161886 0.23401331901550293 26 -1
-0.14946109056472778 0.011000063270330429 0.2742213010787964 26 -1
-0.13623784482479095 0.011496989987790585 0.3333786427974701 17 -1
-0.1752147227525711 -0.010999629274010658 0.28564780950546265 24 -1
-0.1653638333082199 -0.010876541957259178 0.2821364104747772 24 -1
-0.18432395160198212 0.008247464895248413 0.31697964668273926 19 -1
-0.13003523647785187 -0.0012675022007897496 0.24678155779838562 26 -1
-0.16762083768844604 0.0015745507553219795 0.3213517367839813 26 -1
-0.17560884356498718 0.011000305414199829 0.2574184238910675 26 -1
-0.1608634740114212 -0.007151704281568527 0.3807211220264435 12 -1
-0.18033373355865479 -0.0048180827870965 0.2793406844139099 24 -1
-0.19202545285224915 -0.004906250163912773 0.28963181376457214 24 -1
-0.16576170921325684 -0.000535444007255137 0.38012921810150146 12 -1
-0.11580093204975128 -0.011000892147421837 0.3096987009048462 26 -1
-0.10716598480939865 0.0016903397627174854 0.3360934555530548 6 -1
-0.14837467670440674 0.011000330559909344 0.2917450964450836 26 -1
-0.10988698154687881 0.0033653839491307735 0.3674521744251251 6 -1
-0.09353432059288025 -0.018523260951042175 0.28999602794647217 2 -1
-0.1301950216293335 0.008950882591307163 0.31611746549606323 26 -1
-0.0730322077870369 -0.017508484423160553 0.3000764548778534 2 -1
-0.1139993667602539 0.0007737111882306635 0.23147845268249512 26 -1
-0.14363013207912445 0.010924995876848698 0.33826857805252075 17 -1
-0.1108466312289238 0.010982719250023365 0.26672205328941345 26 -1
-0.16226617991924286 -0.011000133119523525 0.24737143516540527 26 -1
-0.11510543525218964 -0.011009507812559605 0.31374287605285645 26 -1
-0.12908479571342468 -0.021282171830534935 0.24624255299568176 26 -1
-0.10949621349573135 -0.0033965371549129486 0.25146013498306274 0 -1
-0.06632646918296814 -0.008066847920417786 0.30053791403770447 2 -1
-0.11120694875717163 0.01127023994922638 0.3307372033596039 6 -1
-0.12300001084804535 -0.0027534631080925465 0.3348188102245331 6 -1
-0.10875603556632996 -0.004406844265758991 0.295269638299942 26 -1
-0.17400650680065155 0.005442517809569836 0.3080332279205322 24 -1
-0.14801520109176636 -0.004968743305653334 0.31388169527053833 26 -1
-0.11084923893213272 0.010983051732182503 0.277588427066803 3 -1
-0.1889999955892563 0.004501389339566231 0.31693536043167114 19 -1
-0.1874024122953415 -0.0050611295737326145 0.4119151532649994 23 -1
-0.19180086255073547 -0.002535447245463729 0.35617735981941223 19 -1
-0.16591450572013855 -0.010932877659797668 0.31890109181404114 26 -1
-0.18559063971042633 0.007999110035598278 0.3377348482608795 19 -1
-0.15227623283863068 -0.010999670252203941 0.25643521547317505 26 -1
-0.18506646156311035 -0.005652217194437981 0.3115283250808716 19 -1
-0.18619462847709656 -0.0016081088688224554 0.27096420526504517 24 -1
-0.13324791193008423 -0.01051201019436121 0.224699467420578 26 -1
-0.17699632048606873 0.004878097213804722 0.3226385712623596 19 -1
-0.16609567403793335 0.006957774981856346 0.3893314003944397 12 -1
-0.10917412489652634 -0.005921049974858761 0.389834463596344 5 -1
-0.18070977926254272 -0.006234162952750921 0.39571720361709595 23 -1
-0.1341986060142517 -0.007248293608427048 0.4112212359905243 7 -1
-0.1488690972328186 0.001513138529844582 0.35195285081863403 17 -1
-0.0705033540725708 -0.019419828429818153 0.3092024624347687 2 -1
-0.16097958385944366 0.007999109104275703 0.3435863256454468 16 -1
-0.12359975278377533 -0.0039371601305902 0.23601561784744263 26 -1
-0.180894136428833 0.004065639805048704 0.41599681973457336 23 -1
-0.12928615510463715 -0.004135539755225182 0.27089107036590576 26 -1
-0.18596723675727844 -0.004924749955534935 0.4140789806842804 23 -1
-0.12167306244373322 0.008377252146601677 0.3316143751144409 6 -1
-0.19139283895492554 0.0026000642683357 0.3156684339046478 24 -1
-0.13782362639904022 0.007999110035598278 0.36699914932250977 17 -1
-0.1665729582309723 0.004701235331594944 0.37768101692199707 12 -1
-0.1828886717557907 -0.0028618767391890287 0.35750049352645874 15 -1
-0.12836462259292603 -0.016847310587763786 0.26093313097953796 26 -1
-0.12564155459403992 -0.003918010275810957 0.3652142882347107 5 -1
-0.1116352453827858 0.008122251369059086 0.3269757926464081 6 -1
-0.06618895381689072 -0.003408161923289299 0.30149251222610474 2 -1
-0.16523656249046326 0.006284642498940229 0.2709103524684906 26 -1
-0.11432548612356186 0.011496989987790585 0.328162282705307 6 -1
-0.1413029432296753 -0.003729152027517557 0.2535622715950012 26 -1
-0.16980256140232086 0.0024648746475577354 0.40160563588142395 12 -1
-0.1445147842168808 0.011394156143069267 0.33165252208709717 17 -1
-0.18404826521873474 -0.009867276065051556 0.34666013717651367 19 -1
-0.1660270392894745 -0.004673691466450691 0.4204042851924896 8 -1
-0.15406295657157898 -0.00016044687072280794 0.4043925404548645 12 -1
-0.18234634399414062 -0.006848417688161135 0.27646657824516296 24 -1
-0.146651953458786 0.0062179164960980415 0.3781154155731201 10 -1
-0.12559139728546143 -0.003634647000581026 0.4006378948688507 5 -1
-0.16294334828853607 -0.0030512954108417034 0.42647016048431396 8 -1
-0.1209949180483818 0.007234484422951937 0.323870450258255 26 -1
-0.1166812926530838 0.007999110035598278 0.36615777015686035 6 -1
-0.1797318309545517 0.010995881631970406 0.25954097509384155 26 -1
-0.18929630517959595 -0.0077206846326589584 0.3450699746608734 19 -1
-0.09565476328134537 0.0013847097288817167 0.2871359884738922 2 -1
-0.1079997569322586 0.0018201444763690233 0.2493315190076828 26 -1
-0.17503628134727478 -0.004221975337713957 0.38458091020584106 15 -1
-0.06588650494813919 0.0024424465373158455 0.316500186920166 2 -1
-0.171199768781662 0.004028289578855038 0.23386575281620026 26 -1
-0.18543100357055664 -0.010248309932649136 0.3101312518119812 24 -1
-0.06481696665287018 -0.01597455143928528 0.3207229673862457 1 -1
-0.14157629013061523 0.011000119149684906 0.2406093031167984 26 -1
-0.14481520652770996 0.006867248099297285 0.3870093822479248 10 -1
-0.08454807847738266 -0.010899968445301056 0.3068808615207672 2 -1
-0.13321396708488464 0.0038060778751969337 0.3401185870170593 17 -1
-0.1920139640569687 -0.003570902394130826 0.2626844048500061 26 -1
-0.11099635064601898 -0.0034612035378813744 0.32328084111213684 6 -1
-0.1080588772892952 0.001659552101045847 0.4016708433628082 5 -1
-0.10938868671655655 0.0026918845251202583 0.2709352970123291 3 -1
-0.19271399080753326 0.0022852711845189333 0.32454657554626465 19 -1
-0.17795626819133759 0.006017100531607866 0.408376544713974 23 -1
-0.16332583129405975 0.007999110035598278 0.3575436472892761 16 -1
-0.10838590562343597 0.004610606003552675 0.37233197689056396 5 -1
-0.15687090158462524 0.006622196640819311 0.414269357919693 8 -1
-0.16999974846839905 -0.007166024297475815 0.30457451939582825 26 -1
-0.17441484332084656 0.010998347774147987 0.25022566318511963 26 -1
-0.13320708274841309 0.007455205544829369 0.3275095522403717 17 -1
-0.10982390493154526 -0.00790599174797535 0.22560422122478485 26 -1
-0.14462745189666748 -0.007923386991024017 0.3496648073196411 17 -1
-0.04163872450590134 -0.005097396206110716 0.335095077753067 1 -1
-0.13120971620082855 0.0044323233887553215 0.4077775180339813 10 -1
-0.12023298442363739 0.007999110035598278 0.34746119379997253 6 -1
-0.17861580848693848 0.004142157267779112 0.32822421193122864 19 -1
-0.13414546847343445 -0.008651241660118103 0.3616192638874054 17 -1
-0.1336352527141571 -0.0020836619660258293 0.32486021518707275 17 -1
-0.05775953084230423 -0.0002959763805847615 0.31238651275634766 1 -1
-0.11156951636075974 -0.0058579654432833195 0.41523072123527527 4 -1
-0.11404538154602051 -0.004849766381084919 0.36714813113212585 5 -1
-0.08402615785598755 0.0007811044342815876 0.2868400514125824 2 -1
-0.0515013188123703 -0.007705099880695343 0.3154812455177307 1 -1
-0.07398989051580429 -0.002766437130048871 0.2936702370643616 2 -1
-0.06367828696966171 0.00035478538484312594 0.32473224401474 1 -1
-0.1594027280807495 -0.005221257917582989 0.32317307591438293 16 -1
-0.12563714385032654 0.0020068136509507895 0.39616888761520386 5 -1
-0.13502700626850128 0.010999954305589199 0.24071916937828064 26 -1
-0.12062264233827591 -0.00546401459723711 0.32430338859558105 6 -1
-0.11399988830089569 0.006888623349368572 0.23654821515083313 26 -1
-0.04869093373417854 -0.011592702940106392 0.31868669390678406 1 -1
-0.15821847319602966 -0.006791009567677975 0.3777673840522766 12 -1
-0.07789389044046402 -0.00812479667365551 0.2896685302257538 2 -1
-0.11508127301931381 -0.019899969920516014 0.2576454281806946 3 -1
-0.1924976408481598 -0.0028549088165163994 0.34516406059265137 19 -1
-0.17591416835784912 0.006042088381946087 0.3733058571815491 15 -1
-0.13300000131130219 -0.00393590098246932 0.33309537172317505 17 -1
-0.12072690576314926 -0.003610667074099183 0.28055667877197266 26 -1
-0.11892620474100113 0.006406358443200588 0.3336294889450073 6 -1
-0.10399676859378815 -0.014467339962720871 0.2605459988117218 3 -1
-0.08462363481521606 -0.017580458894371986 0.2946658730506897 2 -1
-0.09938514977693558 -0.011794701218605042 0.29020243883132935 3 -1
-0.1641748696565628 -0.010271902196109295 0.27485746145248413 24 -1
